0.2098388671875 0.00049591064453125 0.0452880859375
0.27880859375 0.236083984375 -0.341064453125
0.10028076171875 -0.0213775634765625 -0.361083984375
0.11492919921875 0.2108154296875 0.0533447265625
0.25 -0.007045745849609375 -0.432373046875
-0.249755859375 0.00856781005859375 -0.0293731689453125
-0.145263671875 0.06988525390625 -0.04852294921875
0.1968994140625 -0.005306243896484375 0.462158203125
0.29150390625 0.230712890625 0.209228515625
0.2294921875 0.2158203125 0.1876220703125
0.2296142578125 0.0287017822265625 0.0557861328125
0.062469482421875 0.032440185546875 0.061004638671875
0.1737060546875 0.0838623046875 0.00540924072265625
-0.0076904296875 -0.0245513916015625 -0.455078125
0.16748046875 -0.012939453125 0.1275634765625
0.08331298828125 0.2364501953125 -0.246826171875
0.384033203125 0.0133209228515625 -0.09320068359375
0.33154296875 0.11761474609375 0.057952880859375
-0.06634521484375 0.058807373046875 0.023193359375
-0.364013671875 0.07257080078125 0.01418304443359375
0.256103515625 0.207275390625 0.1431884765625
0.082275390625 0.224853515625 0.413330078125
0.2110595703125 0.22900390625 -0.2357177734375
0.273193359375 -0.0284881591796875 0.40771484375
0.18994140625 0.05224609375 0.038360595703125
0.35986328125 0.07965087890625 -0.043792724609375
0.33056640625 0.1036376953125 -0.05999755859375
-0.17041015625 0.045745849609375 -0.056640625
0.148193359375 -0.02685546875 -0.3935546875
-0.07958984375 0.0287628173828125 -0.031341552734375
-0.038421630859375 0.07379150390625 0.036224365234375
0.359619140625 0.03955078125 0.08453369140625
0.18994140625 -0.01556396484375 -0.191650390625
0.259521484375 0.135498046875 -0.0343017578125
0.2183837890625 0.2349853515625 0.333251953125
0.36474609375 -0.0248565673828125 -0.065673828125
0.0648193359375 0.0016937255859375 0.310546875
-0.1710205078125 0.06732177734375 -0.03155517578125
0.2449951171875 0.2196044921875 -0.193603515625
0.1226806640625 0.2132568359375 0.4150390625
0.1365966796875 -0.0303192138671875 0.3701171875
0.1676025390625 -0.1702880859375 0.08917236328125
0.243408203125 0.10406494140625 0.04547119140625
0.38916015625 0.08526611328125 -0.0963134765625
0.054290771484375 -0.0252838134765625 -0.050445556640625
0.1629638671875 -0.218017578125 0.11822509765625
0.08721923828125 0.208251953125 -0.05999755859375
0.314453125 0.218505859375 -0.33056640625
0.1492919921875 0.214111328125 -0.4619140625
0.142578125 0.07470703125 0.01036834716796875
0.3740234375 0.08624267578125 0.07476806640625
0.07745361328125 0.2059326171875 0.1619873046875
0.236328125 0.2095947265625 -0.048248291015625
0.33935546875 0.038787841796875 -0.036285400390625
0.2467041015625 -0.01788330078125 0.416259765625
0.2037353515625 0.2220458984375 0.129150390625
0.38330078125 -0.038818359375 -0.01552581787109375
0.2301025390625 0.2359619140625 -0.3408203125
0.16748046875 0.1103515625 -0.05975341796875
0.324462890625 0.074462890625 -0.021392822265625
0.2293701171875 0.00446319580078125 -0.311767578125
0.377685546875 0.0780029296875 -0.061737060546875
0.2008056640625 -0.01134490966796875 0.459228515625
0.139892578125 -0.00543975830078125 0.25927734375
0.1112060546875 0.11126708984375 -0.02935791015625
0.05706787109375 0.0032367706298828125 -0.392578125
0.188720703125 -0.0301361083984375 -0.210205078125
0.11065673828125 -0.022186279296875 -0.042572021484375
0.1578369140625 0.024871826171875 -0.001201629638671875
0.35498046875 0.05621337890625 0.0281219482421875
0.2420654296875 -0.0192108154296875 0.266357421875
0.1156005859375 0.2239990234375 -0.46875
0.3017578125 0.04833984375 -0.0780029296875
-0.36767578125 0.0623779296875 0.11785888671875
0.1229248046875 -0.031341552734375 0.3486328125
-0.332763671875 0.032501220703125 0.02679443359375
0.08441162109375 -0.11114501953125 0.134765625
0.08709716796875 0.08892822265625 -0.0214996337890625
0.00666046142578125 0.0031490325927734375 0.372802734375
0.299560546875 0.2286376953125 -0.293212890625
-0.30859375 0.029541015625 0.0025997161865234375
0.233154296875 0.033721923828125 0.007053375244140625
0.0689697265625 0.2076416015625 0.1304931640625
0.08197021484375 0.221435546875 0.2452392578125
0.06561279296875 0.02325439453125 0.0526123046875
0.130126953125 0.08831787109375 -0.0267791748046875
0.1595458984375 -0.0027408599853515625 0.421630859375
0.057281494140625 -0.1785888671875 -0.07403564453125
0.15087890625 0.234130859375 0.415283203125
0.2408447265625 0.2081298828125 0.024383544921875
0.0726318359375 0.0423583984375 0.03997802734375
0.2476806640625 0.23583984375 0.2301025390625
0.2222900390625 0.2305908203125 -0.09771728515625
0.160400390625 0.05633544921875 0.03887939453125
0.38134765625 0.043792724609375 0.01515960693359375
0.268310546875 0.2099609375 0.001346588134765625
-0.0355224609375 0.036590576171875 -0.052886962890625
0.103515625 -0.2000732421875 -0.10894775390625
0.1756591796875 -0.023162841796875 -0.10699462890625
-0.1419677734375 0.08099365234375 -0.02484130859375
0.057861328125 0.2303466796875 -0.09063720703125
0.1302490234375 0.07696533203125 -0.031951904296875
0.200927734375 0.2315673828125 0.058380126953125
0.07611083984375 0.2330322265625 -0.38330078125
0.00940704345703125 -0.03167724609375 -0.1146240234375
0.2447509765625 -0.00567626953125 0.1688232421875
0.1507568359375 -0.19677734375 0.11444091796875
0.07208251953125 0.2181396484375 -0.0965576171875
0.361328125 0.12054443359375 -0.00962066650390625
0.043975830078125 0.22607421875 -0.02191162109375
-0.2802734375 0.036346435546875 -0.052581787109375
0.2376708984375 0.08917236328125 -0.032501220703125
0.021484375 -0.0292510986328125 0.0265350341796875
0.06988525390625 -0.226806640625 -0.08807373046875
0.08843994140625 0.057342529296875 -0.049560546875
0.037017822265625 -0.0172119140625 0.39453125
-0.32958984375 0.07476806640625 -0.00928497314453125
0.274169921875 0.11993408203125 -0.0222015380859375
0.198486328125 -0.0167388916015625 -0.315185546875
0.07421875 -0.0138092041015625 -0.0948486328125
0.129638671875 -0.003620147705078125 0.1663818359375
0.10888671875 0.0006122589111328125 0.400146484375
0.09588623046875 -0.0217742919921875 0.32666015625
0.0059661865234375 0.02874755859375 0.0306243896484375
0.290771484375 0.2120361328125 0.029632568359375
0.22021484375 0.2188720703125 0.35400390625
0.311767578125 0.2166748046875 0.09393310546875
-0.2254638671875 0.049224853515625 0.0069732666015625
-0.35400390625 0.0155029296875 -0.006591796875
-0.0758056640625 0.0355224609375 -0.03387451171875
0.239501953125 -0.0216522216796875 0.11712646484375
0.0899658203125 0.2071533203125 0.322021484375
0.31396484375 0.049224853515625 -0.0904541015625
0.0599365234375 -0.004947662353515625 -0.2254638671875
0.29345703125 0.2337646484375 -0.260009765625
0.121337890625 0.225341796875 0.12109375
0.05535888671875 0.034759521484375 -0.01019287109375
0.04443359375 0.2099609375 -0.0066986083984375
0.170166015625 0.2142333984375 -0.263916015625
0.2320556640625 0.0008039474487304688 -0.34326171875
0.0767822265625 0.22705078125 -0.28271484375
0.23046875 -0.0157012939453125 -0.174072265625
0.275390625 0.230712890625 0.270751953125
0.228515625 0.228515625 0.1510009765625
0.24365234375 -0.0024814605712890625 -0.11279296875
-0.2158203125 0.070068359375 -0.0034770965576171875
0.1077880859375 -0.0189971923828125 -0.4072265625
0.2252197265625 0.2119140625 0.1375732421875
0.31494140625 0.08660888671875 -0.0816650390625
0.251220703125 0.120849609375 -0.060272216796875
0.216552734375 0.2301025390625 0.453857421875
0.25 0.005901336669921875 -0.130859375
0.0946044921875 -0.0200347900390625 0.439453125
0.114501953125 0.2080078125 0.004299163818359375
0.046417236328125 -0.0009832382202148438 0.3759765625
0.057769775390625 -0.011444091796875 -0.388916015625
0.165771484375 0.2171630859375 -0.306640625
0.206787109375 0.21435546875 0.281982421875
0.31298828125 0.042877197265625 0.056854248046875
0.1473388671875 -0.1402587890625 0.09130859375
0.1368408203125 0.222412109375 0.1964111328125
0.25341796875 0.224853515625 0.1593017578125
0.068603515625 0.23828125 -0.3740234375
0.266845703125 -0.01947021484375 -0.2978515625
-0.2215576171875 0.060272216796875 0.009918212890625
0.10479736328125 -0.1856689453125 -0.08624267578125
0.160888671875 0.004604339599609375 -0.44677734375
-0.0242462158203125 0.059326171875 -0.040374755859375
0.270751953125 0.09954833984375 0.0294647216796875
0.01306915283203125 -0.020263671875 -0.281005859375
0.202392578125 -0.00021970272064208984 -0.423828125
0.1925048828125 -0.0269012451171875 0.43310546875
0.06298828125 0.2220458984375 -0.2587890625
0.239990234375 0.08258056640625 -0.058135986328125
0.147216796875 0.10955810546875 0.0162506103515625
0.295654296875 0.04669189453125 -0.00070953369140625
-0.281005859375 0.059356689453125 0.0105133056640625
0.06146240234375 0.1292724609375 -0.0139617919921875
0.274658203125 0.0889892578125 -0.0860595703125
0.00513458251953125 0.055908203125 0.01326751708984375
0.10418701171875 -0.005054473876953125 0.341064453125
0.20556640625 -0.029937744140625 -0.39794921875
0.094482421875 0.2235107421875 0.09979248046875
0.1666259765625 -0.0005054473876953125 0.4443359375
0.03924560546875 -0.1669921875 0.1143798828125
-0.097412109375 0.07080078125 0.040374755859375
0.07086181640625 -0.198974609375 -0.08221435546875
0.061676025390625 -0.1962890625 0.12060546875
0.1461181640625 0.229248046875 0.294921875
0.26806640625 0.1292724609375 -0.00229644775390625
0.047698974609375 -0.004467010498046875 0.28564453125
0.1795654296875 0.22607421875 -0.30859375
0.2020263671875 0.236572265625 0.258544921875
0.267333984375 0.0079803466796875 0.032623291015625
0.0919189453125 -0.019195556640625 -0.026153564453125
0.2000732421875 -0.0316162109375 -0.07452392578125
0.022430419921875 -0.01047515869140625 0.156494140625
-0.14697265625 0.0190277099609375 0.02227783203125
0.11846923828125 0.2310791015625 0.193603515625
0.29541015625 0.2301025390625 -0.132568359375
0.1839599609375 0.097412109375 -0.048675537109375
0.37158203125 0.03662109375 0.0285797119140625
0.0198516845703125 0.08502197265625 0.0059967041015625
-0.2293701171875 0.07464599609375 -0.0098419189453125
0.099365234375 0.2154541015625 -0.33447265625
-0.259765625 0.0770263671875 -0.047027587890625
0.08746337890625 0.00788116455078125 0.00920867919921875
0.2032470703125 -0.030975341796875 0.360107421875
-0.01371002197265625 0.074951171875 0.046783447265625
0.11474609375 -0.22509765625 -0.08251953125
0.02716064453125 -0.0196990966796875 -0.194580078125
0.2293701171875 0.0186614990234375 -0.037750244140625
0.21337890625 0.10321044921875 -0.055145263671875
0.1427001953125 -0.0175323486328125 -0.25732421875
0.19873046875 0.093017578125 -0.010162353515625
0.08367919921875 -0.00371551513671875 -0.44970703125
0.10296630859375 -0.004207611083984375 0.1009521484375
0.09930419921875 0.2076416015625 -0.11834716796875
0.1700439453125 -0.00749969482421875 0.321533203125
-0.0024433135986328125 -0.0033054351806640625 -0.1048583984375
0.11260986328125 0.004772186279296875 0.1375732421875
0.26220703125 0.2177734375 -0.263916015625
0.161865234375 0.234375 -0.413818359375
-0.1558837890625 0.053497314453125 0.027313232421875
0.193359375 -0.025390625 -0.4189453125
0.308349609375 0.2196044921875 -0.348876953125
0.284912109375 0.211181640625 -0.339599609375
0.046417236328125 -0.1756591796875 -0.0804443359375
0.3525390625 0.10516357421875 0.022979736328125
-0.08587646484375 0.0116424560546875 -0.0302581787109375
0.25146484375 0.09295654296875 -0.017303466796875
0.10797119140625 -0.0015001296997070312 0.3291015625
0.11572265625 -0.0132293701171875 -0.1800537109375
0.265869140625 0.2105712890625 0.3525390625
0.328125 0.11712646484375 0.044342041015625
0.266845703125 0.0228271484375 -0.0640869140625
-0.29638671875 0.0440673828125 0.0260467529296875
0.1929931640625 -0.0185546875 0.292724609375
-0.10028076171875 0.08502197265625 0.03619384765625
0.369140625 0.0718994140625 -0.09051513671875
-0.00540924072265625 -0.0011911392211914062 -0.46630859375
0.1744384765625 0.235595703125 0.2354736328125
0.26513671875 -0.022308349609375 0.2169189453125
0.1363525390625 -0.0215301513671875 0.4208984375
0.3623046875 0.04779052734375 0.0146331787109375
0.35400390625 0.09906005859375 0.06781005859375
0.287353515625 0.205810546875 -0.002025604248046875
-0.04010009765625 0.08062744140625 -0.0198211669921875
0.055389404296875 0.061309814453125 0.0194244384765625
-0.2890625 0.0882568359375 -0.0211334228515625
0.33837890625 0.0270538330078125 0.03228759765625
-0.36328125 0.05419921875 -0.048492431640625
0.25048828125 0.209228515625 -0.00472259521484375
0.232666015625 -0.026458740234375 0.057952880859375
0.264404296875 -0.0246734619140625 0.394287109375
0.184814453125 0.08551025390625 -0.055572509765625
-0.318359375 0.12420654296875 -0.0019273757934570312
0.143798828125 0.01296234130859375 0.05859375
0.0191497802734375 -0.0301361083984375 -0.139404296875
0.242919921875 -0.01027679443359375 0.16552734375
0.129638671875 -0.0244903564453125 0.39697265625
0.2054443359375 0.06536865234375 -0.08551025390625
0.40185546875 0.0887451171875 -0.07940673828125
0.1356201171875 0.2071533203125 -0.394775390625
0.275146484375 0.04095458984375 0.07666015625
0.373046875 0.001598358154296875 0.061920166015625
0.2357177734375 -0.003360748291015625 0.449951171875
0.1513671875 -0.02496337890625 -0.045806884765625
0.29052734375 0.0609130859375 0.044158935546875
-0.00681304931640625 0.06365966796875 0.0041656494140625
0.2010498046875 0.002079010009765625 -0.40087890625
0.320068359375 0.05889892578125 -0.09808349609375
0.1190185546875 0.032745361328125 0.04437255859375
0.332763671875 0.0019989013671875 0.0655517578125
0.1402587890625 2.771615982055664e-05 0.264892578125
0.2115478515625 -0.031982421875 -0.0204925537109375
0.1331787109375 -0.01265716552734375 0.26904296875
0.275390625 0.2254638671875 -0.1282958984375
0.31396484375 0.07281494140625 -0.0270233154296875
-0.240966796875 0.07794189453125 0.024169921875
0.1728515625 0.07427978515625 -0.051116943359375
0.275146484375 0.23095703125 -0.114501953125
0.318359375 0.0258331298828125 -0.006336212158203125
0.08758544921875 -0.1968994140625 0.12249755859375
0.061309814453125 -0.01739501953125 0.11676025390625
0.294921875 0.212158203125 0.1524658203125
0.19580078125 0.2232666015625 0.303466796875
0.26513671875 -0.0122222900390625 -0.1729736328125
-0.1861572265625 0.082763671875 0.00872802734375
0.03826904296875 0.01361083984375 -0.016845703125
0.1187744140625 -0.029296875 -0.1434326171875
0.1312255859375 0.0034809112548828125 -0.462646484375
-0.2432861328125 0.018218994140625 -0.01934814453125
0.313232421875 0.0218048095703125 -0.06085205078125
0.1505126953125 -0.0218353271484375 -0.1978759765625
0.10528564453125 0.2099609375 -0.13037109375
0.08770751953125 -0.1722412109375 -0.0390625
0.1575927734375 0.2239990234375 0.050201416015625
0.2235107421875 -0.025146484375 0.17431640625
0.0552978515625 0.2178955078125 -0.401123046875
0.28515625 0.031646728515625 -0.004894256591796875
0.2025146484375 -0.0244903564453125 0.08642578125
0.364501953125 -0.037567138671875 -0.00711822509765625
0.10577392578125 -0.0243377685546875 0.478515625
0.0584716796875 -0.1314697265625 0.11151123046875
0.0258331298828125 0.053802490234375 -0.03900146484375
0.006977081298828125 -0.00638580322265625 -0.2200927734375
0.15673828125 0.2181396484375 -0.0859375
0.061981201171875 0.2108154296875 -0.470458984375
0.216796875 0.07659912109375 -0.0006961822509765625
0.08184814453125 -0.1729736328125 0.13525390625
0.09063720703125 -0.0897216796875 0.1259765625
0.293212890625 0.11273193359375 0.033203125
0.2017822265625 0.0033016204833984375 -0.39599609375
0.2288818359375 0.004222869873046875 -0.2110595703125
0.1356201171875 -0.0250244140625 -0.36767578125
0.29248046875 0.110107421875 -0.075439453125
0.140869140625 -0.189208984375 -0.09954833984375
0.132568359375 -0.00457763671875 0.413818359375
0.1939697265625 0.21044921875 0.2919921875
0.29736328125 0.02972412109375 0.07183837890625
0.1075439453125 0.2171630859375 0.07415771484375
0.264892578125 -0.01012420654296875 -0.2003173828125
-0.0259857177734375 0.041717529296875 0.00714111328125
0.04949951171875 -0.01540374755859375 0.1678466796875
0.1451416015625 0.2137451171875 -0.146484375
0.0701904296875 -0.02099609375 0.22705078125
0.2154541015625 -0.0182952880859375 0.338623046875
-0.0008268356323242188 0.09405517578125 -0.01385498046875
0.276123046875 -0.00586700439453125 -0.082275390625
0.300048828125 0.05450439453125 -0.069580078125
0.2373046875 -0.0005927085876464844 0.142333984375
0.05645751953125 -0.01360321044921875 -0.4814453125
0.1866455078125 0.0011310577392578125 0.048553466796875
-0.0250396728515625 0.09417724609375 -0.052978515625
0.1246337890625 0.2098388671875 0.35546875
0.1380615234375 -0.0238800048828125 -0.104736328125
0.14306640625 -0.01165771484375 0.01959228515625
0.212646484375 -0.030029296875 -0.2330322265625
0.2098388671875 -0.0269622802734375 -0.1361083984375
0.160888671875 0.0044097900390625 -0.001194000244140625
0.147216796875 -0.00026798248291015625 -0.14794921875
0.01025390625 0.007965087890625 0.0015354156494140625
0.210693359375 0.036956787109375 -0.04571533203125
0.266845703125 0.041351318359375 -0.04071044921875
0.1650390625 -0.0193939208984375 0.35302734375
0.17822265625 0.227783203125 -0.073486328125
0.186279296875 0.2203369140625 0.28466796875
0.2454833984375 -0.01153564453125 0.2391357421875
0.02423095703125 -0.00020205974578857422 -0.393310546875
0.042510986328125 0.224365234375 0.147216796875
0.08563232421875 -0.22998046875 -0.0938720703125
0.38818359375 0.04315185546875 0.056671142578125
0.2093505859375 0.0102081298828125 -0.049224853515625
-0.09918212890625 0.051361083984375 0.00036454200744628906
0.307373046875 0.1248779296875 0.00214385986328125
0.142333984375 -0.016021728515625 0.388427734375
0.1748046875 0.05316162109375 0.03387451171875
-0.1134033203125 0.0841064453125 -0.056365966796875
0.39599609375 0.0227813720703125 0.031158447265625
0.326904296875 0.07196044921875 0.066162109375
0.2232666015625 -0.01241302490234375 -0.35986328125
0.3564453125 0.0718994140625 -0.08428955078125
-0.078369140625 0.0421142578125 -0.0023956298828125
0.1473388671875 -0.01029205322265625 -0.2108154296875
0.057281494140625 -0.0189971923828125 -0.469482421875
0.10223388671875 -0.01611328125 0.220703125
-0.004627227783203125 0.078369140625 0.019805908203125
-0.00763702392578125 0.0948486328125 -0.03363037109375
0.1884765625 0.2064208984375 0.388671875
0.09283447265625 0.03936767578125 0.0269622802734375
0.11724853515625 -0.040130615234375 0.0943603515625
0.1114501953125 0.2325439453125 0.421142578125
0.1348876953125 0.2196044921875 0.454833984375
0.07696533203125 -0.00576019287109375 -0.2098388671875
0.25390625 0.035247802734375 0.043975830078125
0.277587890625 -0.003162384033203125 0.1593017578125
0.1788330078125 0.05792236328125 -0.0726318359375
0.12249755859375 -0.17041015625 0.05474853515625
0.2264404296875 0.04595947265625 -0.08447265625
0.01071929931640625 0.033355712890625 -0.02838134765625
0.238525390625 -0.020294189453125 0.294189453125
0.38916015625 -0.0272216796875 0.04364013671875
0.33544921875 0.090576171875 -0.056549072265625
0.056854248046875 -0.01154327392578125 0.18701171875
0.0931396484375 0.005634307861328125 0.474365234375
0.08123779296875 -0.029144287109375 0.2880859375
0.038330078125 0.2196044921875 0.2391357421875
0.0255126953125 -0.0133514404296875 -0.0494384765625
0.231689453125 -0.003238677978515625 0.1658935546875
0.08062744140625 -0.11572265625 0.1041259765625
0.2451171875 -0.011505126953125 0.234130859375
-0.2359619140625 0.021392822265625 0.006282806396484375
0.288330078125 0.236083984375 0.2115478515625
0.33251953125 0.06787109375 -0.02392578125
0.283447265625 0.233642578125 -0.043701171875
0.1326904296875 -0.01407623291015625 0.1282958984375
0.294677734375 0.2257080078125 0.2099609375
0.1856689453125 0.0010423660278320312 0.400634765625
0.1011962890625 0.214111328125 -0.07196044921875
0.3359375 -0.004901885986328125 -0.07904052734375
-0.02471923828125 0.064208984375 0.0198822021484375
0.2039794921875 -0.009796142578125 0.274658203125
0.244384765625 0.2384033203125 0.24560546875
0.06939697265625 0.145263671875 -0.019805908203125
0.362548828125 -0.04547119140625 -0.01360321044921875
0.267578125 -0.0211944580078125 0.108154296875
0.07598876953125 0.217041015625 -0.11865234375
-0.1534423828125 0.051727294921875 0.0207672119140625
0.36181640625 0.09710693359375 -0.060821533203125
0.2734375 0.2100830078125 -0.35791015625
-0.366455078125 0.06719970703125 0.0006084442138671875
0.038909912109375 0.22314453125 -0.11199951171875
0.05078125 0.22705078125 0.318603515625
0.08270263671875 -0.0301513671875 -0.234619140625
0.048187255859375 0.00498199462890625 0.45361328125
0.33935546875 -0.0181427001953125 -0.055816650390625
0.34716796875 0.036041259765625 0.03973388671875
0.1468505859375 0.218017578125 -0.038360595703125
0.26904296875 0.2208251953125 0.2266845703125
-0.04876708984375 0.01462554931640625 0.006153106689453125
0.2783203125 0.02496337890625 -0.08544921875
0.2410888671875 0.20654296875 -0.243896484375
-0.00563812255859375 -0.020660400390625 0.261962890625
0.275146484375 0.23681640625 -0.3818359375
0.2333984375 0.222412109375 -0.379150390625
0.08966064453125 -0.0173187255859375 -0.243896484375
0.280029296875 0.0301361083984375 0.038726806640625
0.1295166015625 0.21240234375 0.138916015625
0.2100830078125 0.059234619140625 0.049285888671875
-0.15625 0.047637939453125 0.035552978515625
0.016204833984375 0.041717529296875 0.0596923828125
0.11309814453125 0.2083740234375 -0.01053619384765625
0.10638427734375 0.21923828125 -0.26123046875
0.1279296875 -0.0057373046875 0.289306640625
0.2340087890625 0.01568603515625 0.0626220703125
0.014617919921875 0.0010499954223632812 -0.32666015625
-0.0794677734375 0.0195159912109375 0.0142669677734375
0.080078125 0.2252197265625 -0.332763671875
0.2376708984375 0.03155517578125 0.00782012939453125
0.1412353515625 -0.00460052490234375 -0.008026123046875
0.130859375 -0.017852783203125 -0.39599609375
-0.030426025390625 0.0214691162109375 0.048095703125
0.0175323486328125 0.0823974609375 -0.037994384765625
-0.296142578125 0.0396728515625 0.016571044921875
-0.023590087890625 0.034088134765625 -0.0004973411560058594
-0.00818634033203125 -0.0234375 0.1405029296875
0.328369140625 0.0306396484375 -0.023895263671875
0.0350341796875 -0.023193359375 0.0114898681640625
0.1947021484375 -0.02850341796875 0.174072265625
-0.076171875 0.0479736328125 -0.038665771484375
0.187255859375 -0.0167236328125 0.166748046875
0.244384765625 -0.0234832763671875 0.1968994140625
0.1640625 -0.029693603515625 -0.16259765625
0.1793212890625 0.2191162109375 0.420166015625
0.223388671875 0.0660400390625 -0.07281494140625
0.2066650390625 -0.01007843017578125 0.428466796875
0.1270751953125 0.0006990432739257812 0.056976318359375
0.24853515625 0.2215576171875 0.317626953125
0.0577392578125 0.22119140625 -0.41064453125
0.11444091796875 0.0018892288208007812 -0.13818359375
0.3740234375 -0.04345703125 -0.0207672119140625
0.321044921875 0.09051513671875 -0.085205078125
0.2147216796875 -0.028594970703125 0.02471923828125
0.1573486328125 0.2139892578125 -0.218994140625
0.01438140869140625 0.00543975830078125 0.1951904296875
0.2666015625 0.1112060546875 -0.06298828125
0.0560302734375 -0.0285491943359375 -0.192138671875
0.2454833984375 0.2347412109375 0.345458984375
0.2408447265625 0.2147216796875 0.0682373046875
0.381591796875 0.136962890625 -0.0157012939453125
0.25048828125 0.214599609375 0.364990234375
0.366943359375 -0.0377197265625 0.01409149169921875
0.1397705078125 0.042999267578125 -0.021026611328125
0.284912109375 0.209716796875 -0.004520416259765625
-0.1834716796875 0.01280975341796875 0.00194549560546875
0.054412841796875 0.2296142578125 0.03997802734375
0.306884765625 -0.00809478759765625 -0.04547119140625
0.346435546875 0.1080322265625 -0.01009368896484375
0.189208984375 0.230224609375 -0.3583984375
0.196533203125 -0.026641845703125 -0.393310546875
0.08209228515625 0.0565185546875 -0.025146484375
0.04034423828125 0.0936279296875 -0.038909912109375
0.10931396484375 0.003513336181640625 -0.289794921875
-0.24951171875 0.0413818359375 -0.0222625732421875
0.051300048828125 -0.028411865234375 -0.477783203125
-0.377685546875 0.08184814453125 -0.00897979736328125
0.2705078125 -0.01540374755859375 0.05780029296875
0.323974609375 -0.0374755859375 -0.0199737548828125
0.05328369140625 0.11126708984375 -0.03564453125
0.219970703125 -0.0203704833984375 0.1258544921875
0.14599609375 -0.022430419921875 -0.046600341796875
0.086181640625 0.22802734375 0.29833984375
-0.053985595703125 0.0762939453125 0.00803375244140625
0.2083740234375 -0.01197052001953125 -0.292724609375
0.2333984375 0.0016450881958007812 -0.36328125
0.1632080078125 -0.0077362060546875 -0.031707763671875
0.25732421875 0.003387451171875 0.07183837890625
-0.060546875 0.0306549072265625 0.035736083984375
-0.07147216796875 0.07659912109375 -0.0214385986328125
0.12249755859375 -0.01047515869140625 -0.096435546875
0.25390625 0.234375 0.194580078125
0.11163330078125 0.2313232421875 -0.1500244140625
0.266357421875 -0.027191162109375 0.024658203125
0.296142578125 0.0535888671875 -0.07342529296875
0.10113525390625 0.2257080078125 -0.32666015625
-0.1754150390625 0.0623779296875 -0.01776123046875
0.1531982421875 0.2130126953125 -0.151611328125
0.1942138671875 0.2230224609375 0.313232421875
0.2413330078125 -0.01390838623046875 0.289794921875
0.0977783203125 0.210693359375 -0.4873046875
0.10345458984375 0.2137451171875 0.452880859375
0.12030029296875 -0.1683349609375 0.09625244140625
0.07830810546875 -0.02349853515625 0.029022216796875
0.11187744140625 0.23876953125 -0.250244140625
-0.26904296875 0.07965087890625 -0.0025482177734375
0.1302490234375 0.0158843994140625 -0.031646728515625
0.119873046875 0.05523681640625 -0.08331298828125
-0.410888671875 0.054473876953125 -0.02813720703125
0.27978515625 0.2281494140625 -0.41015625
0.123291015625 0.2291259765625 -0.433349609375
0.0211944580078125 0.07220458984375 0.050628662109375
0.09014892578125 0.2154541015625 0.058807373046875
0.281005859375 0.226806640625 0.068115234375
-0.002349853515625 -0.000537872314453125 0.1435546875
0.076904296875 -0.07037353515625 -0.08709716796875
0.1700439453125 -0.0242919921875 -0.4296875
-0.01020050048828125 -0.028289794921875 -0.39697265625
0.08203125 0.2242431640625 -0.4228515625
0.189208984375 -0.02349853515625 0.2464599609375
0.2078857421875 0.00614166259765625 0.0638427734375
0.08624267578125 -0.160400390625 -0.09332275390625
0.08642578125 0.0009555816650390625 -0.248291015625
0.219970703125 0.238037109375 0.197265625
0.355712890625 0.036590576171875 0.0035343170166015625
-0.045562744140625 0.0183868408203125 0.043365478515625
0.158203125 -0.01430511474609375 -0.2998046875
0.11529541015625 0.072998046875 0.06219482421875
0.12158203125 -0.16162109375 -0.10137939453125
0.260986328125 -0.01183319091796875 0.050140380859375
-0.035064697265625 0.079345703125 0.028411865234375
0.10247802734375 0.1778564453125 -0.32861328125
0.11083984375 0.218017578125 -0.387451171875
-0.348388671875 0.0307159423828125 -0.0133514404296875
0.0221405029296875 -0.020721435546875 0.3095703125
0.1278076171875 -0.0263519287109375 -0.01548004150390625
0.1181640625 -0.020477294921875 0.0112762451171875
0.28173828125 0.217041015625 0.300048828125
0.14990234375 0.0033054351806640625 -0.410888671875
0.2247314453125 -0.0183563232421875 0.063720703125
0.03619384765625 0.222900390625 -0.1881103515625
0.349609375 0.01910400390625 -0.0093841552734375
0.143798828125 -0.011505126953125 0.257080078125
0.284912109375 0.230712890625 0.19091796875
0.10186767578125 -0.01178741455078125 0.2802734375
0.0853271484375 -0.005970001220703125 -0.2291259765625
0.1922607421875 0.06878662109375 0.032196044921875
0.2342529296875 0.2225341796875 -0.1864013671875
0.36328125 -0.0214996337890625 0.01450347900390625
-0.0968017578125 -0.00600433349609375 -0.0200042724609375
0.22314453125 0.224365234375 0.2213134765625
0.06597900390625 -0.00957489013671875 -0.395263671875
0.13525390625 0.2310791015625 0.26171875
-0.334228515625 0.056854248046875 -0.064453125
0.0003819465637207031 0.0022678375244140625 0.304931640625
-0.26513671875 0.0723876953125 0.0292816162109375
0.2196044921875 0.230224609375 -0.29931640625
0.38720703125 0.09130859375 -0.04327392578125
0.036529541015625 0.0693359375 0.01476287841796875
-0.08160400390625 0.0972900390625 -0.044891357421875
0.08056640625 0.22021484375 -0.0300750732421875
0.224853515625 -0.0167083740234375 -0.288818359375
0.19873046875 0.211669921875 -0.387451171875
0.25537109375 0.059722900390625 0.035797119140625
0.2249755859375 -0.0194549560546875 -0.31201171875
0.2919921875 0.2158203125 -0.35986328125
0.11419677734375 -0.00412750244140625 0.43310546875
0.15966796875 0.0914306640625 0.028472900390625
0.041595458984375 0.02679443359375 -0.054412841796875
0.1693115234375 -0.011932373046875 0.03826904296875
0.10003662109375 -0.07379150390625 -0.0860595703125
0.37060546875 0.0042266845703125 -0.05462646484375
0.0160675048828125 -0.004467010498046875 -0.315185546875
0.2626953125 0.0633544921875 -0.0243072509765625
0.10723876953125 0.2225341796875 -0.42431640625
0.07867431640625 3.4749507904052734e-05 0.270263671875
0.248291015625 -0.0116119384765625 -0.210205078125
0.10723876953125 0.2279052734375 -0.07684326171875
0.165283203125 0.2274169921875 -0.2734375
0.27099609375 0.10528564453125 -0.007564544677734375
0.3486328125 0.04412841796875 0.045867919921875
-0.0462646484375 0.048370361328125 -0.009063720703125
0.098876953125 0.232421875 -0.264404296875
0.20458984375 0.22119140625 0.4443359375
0.065673828125 -0.025970458984375 0.2479248046875
-0.0860595703125 0.0880126953125 -0.0170135498046875
0.1302490234375 0.00423431396484375 -0.435546875
-0.052978515625 0.0103302001953125 -0.031280517578125
0.1746826171875 0.1173095703125 -0.021697998046875
0.401611328125 0.061767578125 -0.1024169921875
0.26953125 -0.024749755859375 -0.084716796875
0.1710205078125 0.078369140625 0.044708251953125
0.2978515625 0.208984375 -0.151611328125
-0.033721923828125 0.036834716796875 0.0003712177276611328
0.2646484375 -0.0281524658203125 0.1182861328125
0.25732421875 0.00885009765625 0.006610870361328125
0.16455078125 0.076416015625 0.0660400390625
0.242919921875 -0.0268096923828125 0.1531982421875
0.28662109375 0.223388671875 -0.371337890625
0.0192413330078125 0.00121307373046875 0.181396484375
0.2178955078125 0.00838470458984375 0.025970458984375
0.28173828125 0.2177734375 0.07977294921875
0.18505859375 -0.00919342041015625 0.371826171875
0.18896484375 0.2138671875 0.439453125
0.0283203125 -0.0167236328125 -0.385986328125
0.060882568359375 -0.0166473388671875 0.2313232421875
0.1009521484375 0.219970703125 0.46923828125
0.11181640625 0.10040283203125 -0.0302276611328125
-0.0141143798828125 0.0919189453125 0.030609130859375
0.22900390625 0.2313232421875 0.179931640625
0.02728271484375 0.216796875 -0.1978759765625
0.2900390625 0.0140838623046875 0.0565185546875
0.2164306640625 -0.005825042724609375 0.1375732421875
0.256591796875 0.21630859375 0.06231689453125
0.23486328125 0.220458984375 -0.1285400390625
0.067138671875 0.234375 -0.1925048828125
0.2496337890625 0.00566864013671875 -0.2646484375
0.204833984375 -3.349781036376953e-05 -0.218505859375
0.1424560546875 -0.0007085800170898438 0.10076904296875
0.332275390625 0.003002166748046875 0.045684814453125
0.078369140625 -0.00263214111328125 0.3818359375
-0.1182861328125 0.06573486328125 0.022552490234375
0.181884765625 -0.0013055801391601562 0.2384033203125
0.14599609375 0.22705078125 -0.4130859375
0.321044921875 0.05816650390625 -0.039825439453125
0.09161376953125 0.0626220703125 0.0158233642578125
0.295166015625 0.2183837890625 0.033660888671875
0.04736328125 0.2335205078125 0.454833984375
0.14404296875 -0.005809783935546875 -0.007190704345703125
0.04620361328125 0.004222869873046875 0.485595703125
0.003810882568359375 -0.019744873046875 -0.284912109375
0.22216796875 0.2220458984375 -0.389404296875
0.267822265625 0.2344970703125 -0.2457275390625
0.273681640625 -0.024810791015625 -0.1824951171875
0.0948486328125 0.00423431396484375 0.08514404296875
0.2222900390625 -0.00312042236328125 -0.227783203125
0.1939697265625 -0.0164794921875 0.0196380615234375
0.05450439453125 0.2318115234375 0.260986328125
0.26611328125 0.23828125 0.2841796875
0.02203369140625 -0.009735107421875 0.043182373046875
0.237060546875 -0.02520751953125 0.15380859375
0.091064453125 -0.0031642913818359375 0.417236328125
0.28076171875 0.2152099609375 0.0408935546875
0.007640838623046875 -0.0240631103515625 0.450439453125
0.015899658203125 -0.030975341796875 0.1641845703125
0.11480712890625 -0.0309906005859375 0.299072265625
0.32763671875 0.07904052734375 0.00669097900390625
0.06427001953125 -0.0240325927734375 0.323486328125
0.1756591796875 -0.01727294921875 0.04248046875
0.0538330078125 0.038238525390625 0.0082550048828125
0.0950927734375 0.073974609375 -0.035430908203125
0.04193115234375 0.2164306640625 -0.03558349609375
0.129150390625 -0.12353515625 -0.11407470703125
0.2138671875 0.237548828125 0.355224609375
0.198486328125 0.0787353515625 0.021026611328125
-0.041900634765625 0.01535797119140625 0.0161895751953125
-0.25048828125 0.05902099609375 0.035064697265625
0.14697265625 0.11126708984375 -0.054931640625
0.292724609375 0.06719970703125 0.03863525390625
0.078125 0.2142333984375 0.0009417533874511719
0.10894775390625 -0.031402587890625 -0.19384765625
0.0560302734375 0.016845703125 -0.05828857421875
0.2147216796875 0.20751953125 -0.420654296875
0.1156005859375 0.08709716796875 -0.00989532470703125
0.1822509765625 -0.0003330707550048828 0.47412109375
0.1514892578125 0.2230224609375 -0.31689453125
0.2301025390625 -0.0267333984375 0.0176544189453125
0.21240234375 0.07183837890625 -0.05621337890625
0.193115234375 0.12322998046875 -0.006710052490234375
0.304931640625 -0.0225067138671875 0.031829833984375
0.247314453125 0.2354736328125 -0.36865234375
0.2498779296875 0.0132904052734375 0.0521240234375
0.06011962890625 0.20751953125 -0.4619140625
0.056488037109375 -0.180908203125 0.12481689453125
0.03948974609375 -0.0277862548828125 0.36181640625
0.05047607421875 -0.027008056640625 -0.114501953125
0.1807861328125 -0.01708984375 -0.320556640625
0.05413818359375 0.216552734375 -0.1749267578125
0.026519775390625 -0.01422119140625 0.248779296875
0.005504608154296875 -0.03192138671875 -0.390869140625
0.308349609375 0.220947265625 0.1922607421875
-0.339111328125 0.045074462890625 0.015533447265625
0.00537109375 0.027801513671875 0.031036376953125
0.0826416015625 0.084228515625 -0.061859130859375
0.23046875 0.052337646484375 -0.0787353515625
0.3818359375 0.064697265625 0.01068115234375
0.10650634765625 0.2286376953125 -0.037322998046875
0.22802734375 0.206298828125 0.373046875
0.1373291015625 0.2276611328125 0.2392578125
0.276611328125 0.238037109375 -0.37646484375
-0.1929931640625 0.0230560302734375 -0.04254150390625
0.1634521484375 -0.013885498046875 0.3916015625
0.06817626953125 -0.0287322998046875 0.351318359375
-0.226318359375 0.0164642333984375 -0.01019287109375
0.262451171875 0.1025390625 -0.060455322265625
0.04119873046875 0.228271484375 -0.293701171875
0.1318359375 0.03265380859375 -0.0016241073608398438
0.042083740234375 0.2166748046875 0.035247802734375
-0.33642578125 0.068359375 -0.03924560546875
0.0208587646484375 -0.0241241455078125 0.34326171875
0.1756591796875 0.2247314453125 -0.44384765625
0.388427734375 0.1358642578125 0.028167724609375
0.12646484375 0.0010080337524414062 -0.051361083984375
0.380859375 -0.00687408447265625 0.0313720703125
0.2347412109375 0.212890625 -0.333740234375
0.2196044921875 0.2330322265625 -0.316162109375
-0.1153564453125 0.058380126953125 -0.04754638671875
0.10784912109375 -0.10455322265625 -0.10845947265625
0.0234527587890625 -0.0243377685546875 -0.367919921875
0.2239990234375 0.15673828125 0.33544921875
0.059844970703125 0.0364990234375 -0.07830810546875
0.23876953125 0.06298828125 -0.03271484375
0.004913330078125 -0.003147125244140625 0.302734375
0.09063720703125 -0.00814056396484375 0.2509765625
0.031280517578125 -0.005596160888671875 0.38671875
0.267333984375 0.214599609375 -0.004978179931640625
0.1544189453125 -0.0038890838623046875 0.23583984375
0.06085205078125 0.10345458984375 0.0289154052734375
0.0538330078125 0.2271728515625 0.382080078125
0.11395263671875 0.0816650390625 -0.0020236968994140625
0.2001953125 -0.01605224609375 -0.27490234375
0.1859130859375 -0.0185089111328125 0.1226806640625
0.1295166015625 -0.060760498046875 -0.091064453125
0.07586669921875 -0.175048828125 0.1175537109375
0.1070556640625 -0.024200439453125 0.1002197265625
0.076171875 0.216796875 0.09698486328125
0.38427734375 0.060455322265625 0.07122802734375
0.041229248046875 -0.00403594970703125 -0.1907958984375
0.2568359375 0.2138671875 -0.073974609375
-0.287109375 0.0855712890625 0.005054473876953125
-0.1929931640625 0.0584716796875 -0.057647705078125
0.2158203125 -0.00862884521484375 -0.446044921875
0.07440185546875 -0.0123748779296875 0.1744384765625
-0.3857421875 0.0596923828125 -0.1165771484375
0.197998046875 0.0034694671630859375 -0.1153564453125
0.0361328125 -0.011810302734375 -0.2008056640625
0.11151123046875 0.2332763671875 0.40771484375
0.23046875 0.059234619140625 0.0753173828125
-0.1304931640625 0.005809783935546875 -0.01910400390625
0.06915283203125 0.2178955078125 0.0955810546875
0.224365234375 -0.010009765625 0.1583251953125
-0.0014905929565429688 0.0767822265625 0.0115509033203125
0.38134765625 -0.023193359375 -0.021881103515625
0.1328125 0.03192138671875 0.06268310546875
0.0577392578125 0.00479888916015625 0.32373046875
0.1549072265625 0.23486328125 0.2587890625
0.1348876953125 -0.026702880859375 -0.0811767578125
0.231201171875 0.227294921875 -0.423583984375
0.125 -0.007843017578125 0.1422119140625
0.021209716796875 -0.00298309326171875 0.460205078125
-0.374755859375 0.065185546875 0.068359375
0.16259765625 -0.0153045654296875 0.344482421875
0.1959228515625 -0.019073486328125 -0.2308349609375
0.09295654296875 0.2349853515625 0.376708984375
0.061614990234375 -0.0019741058349609375 -0.460693359375
0.2286376953125 0.2130126953125 0.09332275390625
0.32421875 0.21826171875 0.329833984375
0.284423828125 0.2314453125 0.284423828125
0.27001953125 0.2193603515625 0.1722412109375
0.266845703125 0.208984375 -0.09307861328125
0.2222900390625 -0.01154327392578125 -0.439208984375
0.282958984375 0.09014892578125 -0.042816162109375
0.2159423828125 0.21923828125 0.07293701171875
0.35595703125 0.1322021484375 -0.016815185546875
-0.2529296875 0.015960693359375 0.015594482421875
0.25830078125 0.2310791015625 -0.2685546875
0.2919921875 0.032440185546875 -0.0828857421875
0.033843994140625 0.2196044921875 0.283447265625
0.13623046875 0.2066650390625 0.09637451171875
-0.33740234375 0.0306243896484375 -0.0200958251953125
0.09674072265625 0.0038661956787109375 0.12445068359375
0.317138671875 0.053924560546875 0.057708740234375
0.033782958984375 0.226318359375 0.041839599609375
0.2431640625 0.219482421875 -0.162109375
-0.244873046875 0.0260009765625 0.0079498291015625
0.2176513671875 -0.008392333984375 0.10247802734375
0.21923828125 -0.007526397705078125 0.427001953125
0.1229248046875 -0.023712158203125 -0.188232421875
0.18017578125 0.01097869873046875 -0.0782470703125
0.1500244140625 0.09002685546875 -0.04571533203125
0.130615234375 -0.0191192626953125 0.1790771484375
0.1756591796875 0.23828125 -0.4052734375
0.0106048583984375 0.0863037109375 0.003387451171875
-0.302978515625 0.0728759765625 -0.00542449951171875
0.1641845703125 -0.0004496574401855469 0.472900390625
0.380859375 -0.033599853515625 -0.01174163818359375
0.23046875 0.0687255859375 -0.00858306884765625
0.25537109375 0.1304931640625 0.01000213623046875
-0.0099639892578125 0.05865478515625 -0.0328369140625
0.08441162109375 0.234130859375 -0.13232421875
0.33154296875 0.0023326873779296875 0.06744384765625
0.032501220703125 0.0211181640625 -0.060577392578125
0.168701171875 0.0142822265625 0.00928497314453125
-0.115234375 0.020355224609375 -0.03240966796875
0.0330810546875 -0.0006241798400878906 0.1851806640625
-0.180419921875 0.0484619140625 0.036041259765625
0.35546875 0.0113372802734375 0.003978729248046875
0.059600830078125 -0.177734375 -0.07855224609375
0.020233154296875 0.07318115234375 -0.01178741455078125
-0.1864013671875 0.0838623046875 -0.0258331298828125
0.06256103515625 0.061431884765625 -0.0193023681640625
0.259033203125 0.218994140625 0.26513671875
0.138916015625 -0.00424957275390625 -0.2342529296875
0.162353515625 0.20947265625 0.45166015625
-0.3564453125 0.06951904296875 -0.0022792816162109375
0.1571044921875 0.238525390625 -0.354736328125
-0.0673828125 0.0811767578125 -0.00946807861328125
0.313232421875 0.1348876953125 -0.0157928466796875
0.1959228515625 -0.0008139610290527344 0.409423828125
0.05877685546875 -0.012115478515625 0.26904296875
0.29443359375 0.2353515625 0.153564453125
0.2705078125 -0.01180267333984375 0.19970703125
0.328857421875 0.0211029052734375 -0.07562255859375
0.01131439208984375 -0.0083160400390625 0.166259765625
0.03875732421875 0.21875 0.237060546875
0.09100341796875 0.2159423828125 0.1529541015625
0.0113983154296875 -0.01334381103515625 -0.1253662109375
0.35546875 0.022308349609375 -0.091064453125
0.385986328125 0.01372528076171875 -0.043670654296875
0.2744140625 0.004360198974609375 0.06597900390625
-0.012054443359375 -0.02142333984375 -0.4052734375
0.18701171875 -0.02862548828125 0.28662109375
0.24560546875 0.00504302978515625 0.07269287109375
-0.263671875 0.0819091796875 -0.0018863677978515625
0.005062103271484375 -0.0244293212890625 -0.2137451171875
-0.10467529296875 0.018798828125 0.0287322998046875
0.1025390625 0.2388916015625 -0.357421875
0.005199432373046875 0.004268646240234375 0.31103515625
0.1146240234375 -0.1959228515625 -0.1092529296875
0.03662109375 0.002727508544921875 -0.1959228515625
-0.20703125 0.04388427734375 -0.05828857421875
-0.2327880859375 0.0738525390625 0.03253173828125
0.3916015625 0.03717041015625 -0.106201171875
0.3193359375 0.2138671875 0.1856689453125
0.3994140625 -0.0258941650390625 -0.0457763671875
0.07342529296875 -0.1473388671875 0.1224365234375
0.269287109375 0.0153045654296875 0.059051513671875
0.095458984375 -0.0256195068359375 0.041534423828125
0.1781005859375 0.21728515625 0.04248046875
0.1600341796875 -0.0187225341796875 -0.468017578125
0.24951171875 -0.01462554931640625 -0.370361328125
0.163330078125 0.0086517333984375 0.053802490234375
0.115234375 -0.0074920654296875 -0.06744384765625
0.2666015625 -0.020294189453125 -0.226318359375
0.298095703125 0.221923828125 -0.04913330078125
0.09918212890625 0.2283935546875 -0.37744140625
0.1181640625 0.007793426513671875 0.0304107666015625
0.07928466796875 0.03619384765625 -0.07354736328125
0.0775146484375 -0.029815673828125 0.323486328125
0.29931640625 0.2177734375 -0.12176513671875
0.1402587890625 -0.2047119140625 -0.10919189453125
0.2403564453125 -0.031768798828125 0.31201171875
0.1788330078125 0.2335205078125 -0.479248046875
0.1719970703125 0.0032520294189453125 -0.31005859375
0.26904296875 0.228759765625 -0.1453857421875
0.07470703125 -0.00868988037109375 0.2286376953125
0.1470947265625 0.2132568359375 -0.30029296875
0.356201171875 0.1470947265625 -0.0110015869140625
0.1689453125 0.0159759521484375 0.020660400390625
0.14990234375 -0.00555419921875 0.361328125
0.1180419921875 -0.0232391357421875 -0.3369140625
0.057891845703125 0.07818603515625 0.046478271484375
0.2078857421875 0.2301025390625 0.318603515625
0.2431640625 0.2186279296875 -0.0679931640625
0.351318359375 0.0941162109375 0.06884765625
0.21142578125 0.2373046875 -0.440185546875
0.38525390625 0.0936279296875 -0.051971435546875
0.373291015625 -0.0086669921875 -0.0804443359375
0.30615234375 0.224853515625 0.2666015625
0.169921875 0.2352294921875 -0.223876953125
0.12176513671875 0.2122802734375 -0.1134033203125
-0.005893707275390625 -0.0184783935546875 0.462158203125
0.23486328125 0.2066650390625 0.405029296875
0.2491455078125 0.2322998046875 -0.427001953125
-0.01505279541015625 0.04095458984375 -0.07379150390625
0.2861328125 0.2098388671875 -0.2132568359375
0.1466064453125 0.2259521484375 -0.464111328125
0.0712890625 0.216552734375 0.275634765625
0.288330078125 0.06427001953125 0.06207275390625
0.1771240234375 -0.0257415771484375 -0.333740234375
0.3232421875 0.057098388671875 0.0304718017578125
0.1292724609375 -0.0201568603515625 -0.322265625
0.07080078125 -0.030792236328125 -0.480224609375
-0.1143798828125 0.006744384765625 -0.0049285888671875
0.2335205078125 0.234375 0.3408203125
0.1527099609375 -0.0160064697265625 0.388671875
-0.142333984375 0.029327392578125 0.039337158203125
0.2734375 -0.005046844482421875 0.30712890625
-0.001239776611328125 0.00429534912109375 0.230712890625
0.25244140625 0.02667236328125 0.07586669921875
-0.1688232421875 0.051422119140625 -0.03839111328125
0.1976318359375 0.22021484375 0.09747314453125
-0.199462890625 0.02325439453125 -0.02557373046875
0.1561279296875 0.2169189453125 0.1087646484375
-0.171630859375 0.004756927490234375 -0.014404296875
0.058563232421875 0.07666015625 0.005496978759765625
0.1903076171875 -0.00909423828125 0.077880859375
0.4013671875 0.1180419921875 -0.04888916015625
0.07183837890625 0.2064208984375 0.40380859375
0.1744384765625 0.2147216796875 -0.13232421875
-0.013336181640625 -0.0083770751953125 -0.209716796875
0.291748046875 0.2286376953125 -0.4345703125
0.07916259765625 -0.18310546875 0.11041259765625
0.1605224609375 -0.02484130859375 0.11578369140625
-0.00902557373046875 0.08880615234375 0.0236663818359375
0.1180419921875 0.2169189453125 0.44140625
0.314697265625 -0.007160186767578125 -0.049530029296875
-0.0022182464599609375 -0.00528717041015625 0.0008406639099121094
0.1932373046875 0.2230224609375 0.118408203125
0.262939453125 0.2220458984375 -0.0548095703125
0.1351318359375 0.235595703125 0.2027587890625
0.1605224609375 0.00640869140625 0.01291656494140625
0.13671875 0.006900787353515625 -0.037872314453125
0.14697265625 0.2230224609375 0.0280609130859375
0.11865234375 -0.01206207275390625 0.336669921875
0.0572509765625 -0.0294036865234375 0.1207275390625
0.316650390625 0.12261962890625 -0.0103912353515625
0.2044677734375 -0.0261383056640625 -0.20947265625
0.25 0.0205230712890625 -0.043182373046875
0.0941162109375 0.2354736328125 -0.27490234375
0.29345703125 0.2059326171875 -0.345458984375
0.1273193359375 -0.2005615234375 0.121337890625
0.255859375 0.0556640625 -0.04559326171875
0.1124267578125 0.0004849433898925781 0.1287841796875
0.260009765625 0.2105712890625 -0.2220458984375
-0.37744140625 0.01380157470703125 -0.002193450927734375
0.2479248046875 0.237060546875 -0.4052734375
0.27294921875 0.060546875 -0.00786590576171875
0.192138671875 0.08758544921875 -0.07745361328125
0.1934814453125 0.23828125 -0.3935546875
-0.285888671875 0.054107666015625 -0.039794921875
0.1387939453125 -0.01074981689453125 -0.259765625
0.1190185546875 0.0005927085876464844 0.1868896484375
0.1513671875 -0.01074981689453125 0.01763916015625
0.1827392578125 0.2215576171875 -0.4228515625
0.034210205078125 -0.01157379150390625 0.420166015625
-0.1414794921875 0.053192138671875 -0.031341552734375
-0.07623291015625 -0.0031185150146484375 -0.0180206298828125
0.39990234375 0.076904296875 -0.10333251953125
0.146240234375 0.22998046875 -0.00809478759765625
0.194091796875 -0.014892578125 -0.14111328125
0.134765625 0.2247314453125 0.28564453125
0.049835205078125 -0.030120849609375 -0.301025390625
0.2276611328125 0.2183837890625 -0.146484375
-0.1121826171875 0.03167724609375 0.025177001953125
0.100341796875 0.074951171875 0.0633544921875
0.39208984375 0.1007080078125 -0.08154296875
0.1575927734375 0.22705078125 -0.133056640625
0.276123046875 0.209228515625 0.103759765625
0.04974365234375 0.2335205078125 -0.48828125
0.39990234375 0.0721435546875 -0.0168914794921875
0.09161376953125 0.2164306640625 -0.2130126953125
0.057281494140625 0.20703125 -0.292724609375
0.1680908203125 -0.03131103515625 0.2666015625
0.189453125 -0.0309295654296875 -0.1361083984375
0.30712890625 0.21728515625 0.2174072265625
